# This PCD file was generated using the MATLAB® pcwrite function
# from Computer Vision Toolbox®.
# .PCD v.7 - Point Cloud Data file format
VERSION .7
FIELDS x y z rgb normal_x normal_y normal_z
SIZE 4 4 4 4 4 4 4
TYPE F F F F F F F
COUNT 1 1 1 1 1 1 1
WIDTH 652
HEIGHT 1
VIEWPOINT 0 0 0 1 0 0 0
POINTS 652
DATA ascii
-0.215676 -0.177518 0.871000 7.922369788e-39 0.000000 -0.000000 1.000000
-0.214017 -0.177518 0.871000 7.739763782e-39 0.000000 0.000000 1.000000
-0.218453 -0.182613 0.896000 6.168506031e-39 -0.070838 0.576004 -0.814372
-0.216747 -0.182613 0.896000 4.597951732e-39 1.000000 0.000000 0.000000
-0.215040 -0.182613 0.896000 4.966346091e-39 -0.388702 0.469472 -0.792785
-0.212857 -0.182206 0.894000 5.334761471e-39 -0.336286 0.844919 -0.415961
-0.211154 -0.182206 0.894000 5.521299520e-39 0.003076 -0.904648 0.426148
-0.284050 -0.174042 0.862000 1.188963912e-38 -0.062231 0.492739 0.867949
-0.282408 -0.174042 0.862000 1.170489053e-38 0.000000 0.000000 1.000000
-0.280766 -0.174042 0.862000 1.152122374e-38 0.000000 0.000000 1.000000
-0.279124 -0.174042 0.862000 1.161306484e-38 0.765751 0.052922 0.640957
-0.275551 -0.172830 0.856000 1.179745470e-38 0.688986 -0.310525 0.654884
-0.273280 -0.172427 0.854000 1.179817357e-38 -0.389558 0.609652 -0.690340
-0.271653 -0.172427 0.854000 1.189072933e-38 0.276146 -0.741381 0.611635
-0.270027 -0.172427 0.854000 1.198256763e-38 -0.000270 -0.853296 0.521426
-0.268400 -0.172427 0.854000 1.207476186e-38 -0.000270 -0.853296 0.521427
-0.266773 -0.172427 0.854000 1.216695749e-38 0.356772 -0.755428 0.549584
-0.263905 -0.171619 0.850000 1.225879438e-38 -0.236731 0.390343 -0.889714
-0.262286 -0.171619 0.850000 1.235098861e-38 0.000000 0.000000 1.000000
-0.260667 -0.171619 0.850000 1.253466101e-38 0.000000 -0.000000 1.000000
-0.259048 -0.171619 0.850000 1.262721397e-38 0.000000 -0.000000 1.000000
-0.257429 -0.171619 0.850000 1.271941240e-38 0.000000 -0.000000 1.000000
-0.255810 -0.171619 0.850000 1.281196956e-38 0.000000 0.000000 1.000000
-0.254190 -0.171619 0.850000 1.290452533e-38 0.000000 0.000000 1.000000
-0.252571 -0.171619 0.850000 1.290488686e-38 0.000000 0.000000 1.000000
-0.250952 -0.171619 0.850000 1.299744123e-38 0.000000 0.000000 1.000000
-0.249333 -0.171619 0.850000 1.308963826e-38 0.000000 0.000000 1.000000
-0.247714 -0.171619 0.850000 1.327331205e-38 1.000000 0.000000 0.000000
-0.246095 -0.171619 0.850000 1.327331485e-38 0.000000 0.000000 1.000000
-0.243901 -0.171215 0.848000 1.327368199e-38 -0.673133 0.597248 -0.436104
-0.242286 -0.171215 0.848000 1.364282605e-38 -0.644195 0.667219 -0.373940
-0.240670 -0.171215 0.848000 1.400758964e-38 -0.711839 0.193200 0.675247
-0.239619 -0.171619 0.850000 9.579688284e-39 0.000000 0.000000 1.000000
-0.238000 -0.171619 0.850000 5.235039467e-39 0.000000 0.000000 1.000000
-0.236937 -0.172023 0.852000 6.249136745e-39 -0.666487 -0.673394 0.319900
-0.235314 -0.172023 0.852000 7.355132577e-39 -0.466030 -0.485709 0.739528
-0.234240 -0.172427 0.854000 7.541339919e-39 0.841591 0.275527 -0.464553
-0.233158 -0.172830 0.856000 7.725017918e-39 0.588710 0.089121 -0.803417
-0.231528 -0.172830 0.856000 7.908697318e-39 0.000000 -0.000000 1.000000
-0.229897 -0.172830 0.856000 8.185274399e-39 -0.311788 -0.563703 0.764871
-0.228800 -0.173234 0.858000 7.352652279e-39 -0.582739 -0.538738 0.608422
-0.227166 -0.173234 0.858000 6.618381692e-39 -0.677285 -0.478533 0.558830
-0.226057 -0.173638 0.860000 1.123424762e-38 0.864479 0.395109 -0.310750
-0.225724 -0.174648 0.865000 1.584791492e-38 0.844901 0.254832 -0.470323
-0.224594 -0.175051 0.867000 1.410340903e-38 0.798975 0.498553 -0.336278
-0.223457 -0.175455 0.869000 1.243383058e-38 0.562154 -0.149354 -0.813435
-0.221802 -0.175455 0.869000 1.179022680e-38 0.502476 -0.168689 -0.847975
-0.220653 -0.175859 0.871000 1.114593499e-38 -0.609594 0.365863 0.703235
-0.218491 -0.175455 0.869000 9.940228366e-39 0.183843 -0.663143 0.725564
-0.217335 -0.175859 0.871000 8.748530521e-39 -0.572764 -0.085748 0.815223
-0.215676 -0.175859 0.871000 8.291516645e-39 0.000000 0.000000 1.000000
-0.214017 -0.175859 0.871000 7.832674074e-39 0.000000 0.000000 1.000000
-0.218941 -0.181310 0.898000 6.908915706e-39 0.931399 0.212359 -0.295634
-0.217230 -0.181310 0.898000 5.986597872e-39 0.143129 -0.531261 0.835030
-0.215520 -0.181310 0.898000 6.166307394e-39 -0.070472 0.575490 -0.814767
-0.213333 -0.180907 0.896000 6.352485309e-39 -0.388983 0.469952 -0.792362
-0.211627 -0.180907 0.896000 6.630498720e-39 0.161320 -0.477832 0.863512
-0.281752 -0.172000 0.860000 1.170596532e-38 0.895383 -0.378483 -0.234605
-0.280114 -0.172000 0.860000 1.152194120e-38 0.858928 -0.259409 -0.441531
-0.279124 -0.172400 0.862000 1.161378231e-38 -0.729540 0.054688 0.681749
-0.276194 -0.171600 0.858000 1.179781483e-38 -0.668836 0.445074 -0.595456
-0.273920 -0.171200 0.856000 1.179817637e-38 -0.502926 0.626363 -0.595596
-0.272290 -0.171200 0.856000 1.179925397e-38 0.161675 -0.549401 0.819768
-0.270659 -0.171200 0.856000 1.189109086e-38 0.000000 0.000000 1.000000
-0.269029 -0.171200 0.856000 1.198364523e-38 1.000000 0.000000 0.000000
-0.267398 -0.171200 0.856000 1.207512339e-38 -0.097609 0.590634 -0.801014
-0.265147 -0.170800 0.854000 1.225879579e-38 0.633721 -0.290401 0.716983
-0.262903 -0.170400 0.852000 1.235099282e-38 -0.582896 0.604163 -0.543341
-0.260667 -0.170000 0.850000 1.244318564e-38 0.000000 0.000000 1.000000
-0.259048 -0.170000 0.850000 1.253573860e-38 0.000000 0.000000 1.000000
-0.257429 -0.170000 0.850000 1.272049000e-38 0.000000 0.000000 1.000000
-0.255810 -0.170000 0.850000 1.281268843e-38 0.000000 -0.000000 1.000000
-0.254190 -0.170000 0.850000 1.290488686e-38 0.000000 -0.000000 1.000000
-0.252571 -0.170000 0.850000 1.299672656e-38 0.000000 -0.000000 1.000000
-0.250952 -0.170000 0.850000 1.308963826e-38 0.000000 -0.000000 1.000000
-0.249333 -0.170000 0.850000 1.318147375e-38 0.000000 0.000000 1.000000
-0.247714 -0.170000 0.850000 1.336550628e-38 0.000000 -0.000000 1.000000
-0.246095 -0.170000 0.850000 1.327367499e-38 0.000000 -0.000000 1.000000
-0.244476 -0.170000 0.850000 1.327404073e-38 0.000000 0.000000 1.000000
-0.242857 -0.170000 0.850000 1.364282465e-38 -0.072854 -0.575788 0.814347
-0.241238 -0.170000 0.850000 1.400938751e-38 -0.382770 -0.702008 0.600559
-0.239619 -0.170000 0.850000 1.004138810e-38 -0.073529 -0.575102 0.814771
-0.238000 -0.170000 0.850000 5.969729041e-39 0.647964 0.654860 -0.388974
-0.237493 -0.170800 0.854000 6.523206902e-39 0.376745 0.801997 -0.463535
-0.235867 -0.170800 0.854000 7.172532177e-39 -0.260506 -0.824260 0.502725
-0.234240 -0.170800 0.854000 7.357300386e-39 0.608620 0.614397 -0.502094
-0.233158 -0.171200 0.856000 7.633174014e-39 0.742782 0.586853 -0.322302
-0.232069 -0.171600 0.858000 7.909049044e-39 -0.310496 -0.563174 0.765785
-0.230434 -0.171600 0.858000 8.185984857e-39 1.000000 0.000000 0.000000
-0.228800 -0.171600 0.858000 7.810746556e-39 0.000000 0.000000 1.000000
-0.227695 -0.172000 0.860000 7.533485642e-39 -0.686205 -0.685623 0.242991
-0.226583 -0.172400 0.862000 1.188997123e-38 0.847015 0.518066 -0.119051
-0.226246 -0.173400 0.867000 1.622096719e-38 0.944301 0.197470 -0.263250
-0.225112 -0.173800 0.869000 1.299132035e-38 0.629391 0.208406 -0.748621
-0.223457 -0.173800 0.869000 9.671578431e-39 0.000000 0.000000 1.000000
-0.221802 -0.173800 0.869000 9.947054091e-39 -0.532625 -0.128087 0.836603
-0.220653 -0.174200 0.871000 1.022255918e-38 -0.560254 0.148304 0.814937
-0.218994 -0.174200 0.871000 1.095508935e-38 0.000000 -0.000000 1.000000
-0.217335 -0.174200 0.871000 1.177982917e-38 0.000000 0.000000 1.000000
-0.215676 -0.174200 0.871000 9.944568187e-39 1.000000 0.000000 0.000000
-0.214017 -0.174200 0.871000 8.109256760e-39 0.000000 0.000000 1.000000
-0.218453 -0.179200 0.896000 7.094725079e-39 0.329630 -0.503083 -0.798907
-0.217230 -0.179600 0.898000 6.169545794e-39 -0.236409 0.491589 0.838124
-0.215520 -0.179600 0.898000 6.355002041e-39 -0.348590 -0.343139 -0.872204
-0.213333 -0.179200 0.896000 6.632296586e-39 0.000000 -0.000000 1.000000
-0.211627 -0.179200 0.896000 6.907081406e-39 0.000000 -0.000000 1.000000
-0.209920 -0.179200 0.896000 7.090034933e-39 0.000000 0.000000 1.000000
-0.281097 -0.169966 0.858000 1.170668980e-38 0.992064 -0.008171 -0.125467
-0.280766 -0.170758 0.862000 1.152194401e-38 0.776059 -0.125592 -0.618028
-0.280095 -0.171352 0.865000 1.161413964e-38 0.974701 -0.204478 0.090260
-0.276838 -0.170362 0.860000 1.179781343e-38 0.665099 -0.386956 0.638677
-0.274560 -0.169966 0.858000 1.179817637e-38 0.562330 -0.478736 0.674237
-0.272290 -0.169570 0.856000 1.179925397e-38 -0.174983 0.488889 -0.854616
-0.270659 -0.169570 0.856000 1.189145100e-38 0.000000 0.000000 1.000000
-0.269029 -0.169570 0.856000 1.198364523e-38 0.000000 -0.000000 1.000000
-0.267398 -0.169570 0.856000 1.207548212e-38 0.477159 -0.076452 0.875485
-0.265147 -0.169173 0.854000 1.225915452e-38 0.640224 -0.192517 0.743674
-0.262903 -0.168777 0.852000 1.235099001e-38 0.653261 -0.395623 0.645549
-0.260667 -0.168381 0.850000 1.244354438e-38 -0.095371 0.593562 -0.799118
-0.259048 -0.168381 0.850000 1.253609874e-38 0.000000 0.000000 1.000000
-0.257429 -0.168381 0.850000 1.272049420e-38 1.000000 0.000000 0.000000
-0.255810 -0.168381 0.850000 1.281305277e-38 0.000000 0.000000 1.000000
-0.254190 -0.168381 0.850000 1.299672376e-38 0.000000 0.000000 1.000000
-0.252571 -0.168381 0.850000 1.308856066e-38 0.000000 0.000000 1.000000
-0.250952 -0.168381 0.850000 1.327330785e-38 0.000000 0.000000 1.000000
-0.249333 -0.168381 0.850000 1.336514475e-38 0.000000 -0.000000 1.000000
-0.247714 -0.168381 0.850000 1.345770191e-38 0.000000 0.000000 1.000000
-0.246095 -0.168381 0.850000 1.336623075e-38 0.000000 0.000000 1.000000
-0.244476 -0.168381 0.850000 1.336587622e-38 0.000000 -0.000000 1.000000
-0.242857 -0.168381 0.850000 1.373501747e-38 -0.311550 -0.574432 0.756944
-0.241806 -0.168777 0.852000 1.410194748e-38 -0.474132 -0.681109 0.557934
-0.240183 -0.168777 0.852000 1.041125663e-38 -0.592565 -0.747799 0.299439
-0.239120 -0.169173 0.854000 6.797691844e-39 0.688109 0.687889 -0.230901
-0.238050 -0.169570 0.856000 6.889116760e-39 -0.310181 -0.567214 0.762926
-0.236419 -0.169570 0.856000 6.988863987e-39 -0.073689 -0.571395 0.817360
-0.234789 -0.169570 0.856000 7.265466291e-39 -0.598421 -0.755395 0.266965
-0.233703 -0.169966 0.858000 7.633532747e-39 -0.583082 -0.539649 0.607285
-0.232069 -0.169966 0.858000 7.909763707e-39 0.000000 0.000000 1.000000
-0.230434 -0.169966 0.858000 8.185628927e-39 1.000000 0.000000 0.000000
-0.228800 -0.169966 0.858000 8.360690342e-39 -0.676018 -0.328053 0.659834
-0.228225 -0.170758 0.862000 8.555162543e-39 0.879040 0.460499 -0.123407
-0.227371 -0.171352 0.865000 1.263793390e-38 0.926271 0.041866 -0.374526
-0.226246 -0.171749 0.867000 1.667474407e-38 0.564495 -0.149674 -0.811753
-0.224594 -0.171749 0.867000 1.178772829e-38 0.504524 -0.169160 -0.846664
-0.223457 -0.172145 0.869000 7.000793241e-39 0.691139 0.549389 -0.469573
-0.222823 -0.172937 0.873000 8.091688681e-39 -0.566829 -0.765692 0.304010
-0.220653 -0.172541 0.871000 9.305662968e-39 -0.319865 -0.700876 0.637542
-0.218994 -0.172541 0.871000 1.207833096e-38 -0.118284 -0.523053 0.844052
-0.218333 -0.173333 0.875000 1.492057483e-38 -0.682195 -0.378204 0.625756
-0.216667 -0.173333 0.875000 1.161019919e-38 0.839877 0.497409 -0.217234
-0.218440 -0.176107 0.889000 8.387303802e-39 -0.725713 0.610491 0.317240
-0.218453 -0.177493 0.896000 7.372404982e-39 -0.186625 0.456583 0.869887
-0.216747 -0.177493 0.896000 6.356095054e-39 0.000000 0.000000 1.000000
-0.215040 -0.177493 0.896000 6.631220389e-39 0.000000 0.000000 1.000000
-0.213333 -0.177493 0.896000 6.998919705e-39 0.000000 -0.000000 1.000000
-0.211627 -0.177493 0.896000 7.183308162e-39 0.000000 -0.000000 1.000000
-0.209920 -0.177493 0.896000 7.366623224e-39 1.000000 0.000000 0.000000
-0.281752 -0.168724 0.860000 1.161486131e-38 0.983220 -0.165494 -0.076743
-0.280114 -0.168724 0.860000 1.152194681e-38 0.940873 0.116210 -0.318204
-0.279124 -0.169116 0.862000 1.170597373e-38 -0.406737 -0.784892 0.467450
-0.277482 -0.169116 0.862000 1.179853090e-38 -0.326836 0.918388 -0.223026
-0.274560 -0.168331 0.858000 1.179853650e-38 -0.325403 0.372729 -0.869015
-0.272926 -0.168331 0.858000 1.189109086e-38 0.000000 0.000000 1.000000
-0.271291 -0.168331 0.858000 1.189109367e-38 1.000000 0.000000 0.000000
-0.269657 -0.168331 0.858000 1.198364663e-38 -0.174458 0.488561 -0.854911
-0.267398 -0.167939 0.856000 1.207548353e-38 0.629758 -0.489918 0.602814
-0.265147 -0.167547 0.854000 1.216731762e-38 0.541328 -0.364916 0.757496
-0.263520 -0.167547 0.854000 1.225951185e-38 0.454452 -0.469089 0.757251
-0.261280 -0.167154 0.852000 1.244390311e-38 0.356439 -0.754948 0.550458
-0.259657 -0.167154 0.852000 1.253610154e-38 -0.000274 -0.851850 0.523785
-0.258034 -0.167154 0.852000 1.272049841e-38 0.356536 -0.755770 0.549267
-0.255810 -0.166762 0.850000 1.281270104e-38 -0.174898 0.493333 -0.852076
-0.254190 -0.166762 0.850000 1.299708530e-38 0.000000 0.000000 1.000000
-0.252571 -0.166762 0.850000 1.318075349e-38 0.000000 0.000000 1.000000
-0.250952 -0.166762 0.850000 1.327330785e-38 0.000000 0.000000 1.000000
-0.249333 -0.166762 0.850000 1.336550488e-38 1.000000 0.000000 0.000000
-0.247714 -0.166762 0.850000 1.345806344e-38 1.000000 0.000000 0.000000
-0.246095 -0.166762 0.850000 1.345806905e-38 -0.310907 -0.575343 0.756517
-0.245051 -0.167154 0.852000 1.345807185e-38 -0.496870 -0.801426 0.332921
-0.243429 -0.167154 0.852000 1.373501607e-38 -0.259955 -0.824874 0.502003
-0.241806 -0.167154 0.852000 1.410303068e-38 -0.473423 -0.679502 0.560489
-0.240747 -0.167547 0.854000 1.059673670e-38 0.687971 0.688189 -0.230415
-0.239680 -0.167939 0.856000 7.166478567e-39 -0.585321 -0.542586 0.602494
-0.238050 -0.167939 0.856000 7.164268720e-39 0.000000 0.000000 1.000000
-0.236419 -0.167939 0.856000 7.264373278e-39 -0.310146 -0.565424 0.764267
-0.235337 -0.168331 0.858000 7.448421220e-39 -0.543805 -0.131863 0.828787
-0.233703 -0.168331 0.858000 7.726444440e-39 0.000000 -0.000000 1.000000
-0.232610 -0.168724 0.860000 7.726450045e-39 -0.496865 -0.508600 0.703172
-0.230971 -0.168724 0.860000 7.726454249e-39 -0.258334 -0.819575 0.511429
-0.229333 -0.168724 0.860000 8.363568609e-39 -0.359970 -0.834542 0.417089
-0.228225 -0.169116 0.862000 9.026185200e-39 0.826703 0.531210 -0.185414
-0.227371 -0.169705 0.865000 1.087333620e-38 0.807066 0.422523 -0.412454
-0.226246 -0.170097 0.867000 1.262858304e-38 -0.558066 -0.395574 0.729440
-0.224594 -0.170097 0.867000 1.112976821e-38 0.634449 0.640302 -0.432999
-0.223971 -0.170882 0.871000 9.551358233e-39 0.914041 0.347923 -0.208518
-0.222823 -0.171274 0.873000 1.103652301e-38 -0.559616 0.147464 0.815527
-0.221160 -0.171274 0.873000 1.252172422e-38 0.000000 0.000000 1.000000
-0.219497 -0.171274 0.873000 1.383043049e-38 -0.585757 -0.738827 0.333201
-0.218333 -0.171667 0.875000 1.511971476e-38 -0.682195 -0.378204 0.625756
-0.217905 -0.172648 0.880000 1.188897210e-38 0.979616 0.144432 -0.139612
-0.216229 -0.172648 0.880000 8.757545074e-39 0.979616 0.144431 -0.139612
-0.216747 -0.174413 0.889000 7.462469237e-39 -0.725713 0.610491 0.317240
-0.216747 -0.175787 0.896000 6.175302328e-39 0.000000 0.000000 1.000000
-0.215040 -0.175787 0.896000 6.634086044e-39 0.000000 0.000000 1.000000
-0.213333 -0.175787 0.896000 7.001072099e-39 0.000000 0.000000 1.000000
-0.211627 -0.175787 0.896000 7.276581390e-39 0.000000 0.000000 1.000000
-0.209920 -0.175787 0.896000 7.552092083e-39 1.000000 0.000000 0.000000
-0.283390 -0.168057 0.865000 1.161522004e-38 0.000000 0.000000 1.000000
-0.280766 -0.167474 0.862000 1.161449977e-38 0.600754 0.728991 -0.328126
-0.280095 -0.168057 0.865000 1.170633387e-38 0.336134 0.876067 -0.345717
-0.278448 -0.168057 0.865000 1.189000906e-38 0.774325 -0.415685 0.477102
-0.275200 -0.167086 0.860000 1.189073073e-38 -0.561703 0.532410 -0.633270
-0.272926 -0.166697 0.858000 1.198256763e-38 -0.174172 0.487306 -0.855685
-0.271291 -0.166697 0.858000 1.198292776e-38 1.000000 0.000000 0.000000
-0.269657 -0.166697 0.858000 1.207512339e-38 0.000000 -0.000000 1.000000
-0.268023 -0.166697 0.858000 1.207548353e-38 0.540068 -0.363651 0.759002
-0.265768 -0.166309 0.856000 1.216767775e-38 0.564154 -0.480589 0.671390
-0.263520 -0.165920 0.854000 1.225987198e-38 0.275746 -0.636451 0.720343
-0.261893 -0.165920 0.854000 1.244390451e-38 0.274772 -0.740608 0.613188
-0.260267 -0.165920 0.854000 1.253610154e-38 -0.000269 -0.850401 0.526136
-0.258640 -0.165920 0.854000 1.272049700e-38 0.355868 -0.754580 0.551332
-0.256411 -0.165531 0.852000 1.290453233e-38 -0.505205 0.630065 -0.589734
-0.254789 -0.165531 0.852000 1.308891939e-38 -0.014765 -0.697549 0.716385
-0.253166 -0.165531 0.852000 1.318111362e-38 0.034640 -0.539748 0.841114
-0.251543 -0.165531 0.852000 1.336514475e-38 -0.015300 -0.697478 0.716443
-0.249920 -0.165531 0.852000 1.345770051e-38 0.034200 -0.539899 0.841035
-0.248297 -0.165531 0.852000 1.354989894e-38 -0.015830 -0.697406 0.716501
-0.246674 -0.165531 0.852000 1.354990314e-38 -0.599824 -0.757531 0.257600
-0.245627 -0.165920 0.854000 1.354990595e-38 -0.309314 -0.571596 0.760002
-0.244000 -0.165920 0.854000 1.382685017e-38 -0.072180 -0.571752 0.817245
-0.242373 -0.165920 0.854000 1.410375235e-38 -0.599042 -0.756432 0.262601
-0.241310 -0.166309 0.856000 1.087440399e-38 -0.585286 -0.542786 0.602349
-0.239680 -0.166309 0.856000 7.630325175e-39 -0.584047 -0.541214 0.604959
-0.238606 -0.166697 0.858000 7.531610704e-39 -0.308859 -0.564871 0.765197
-0.236971 -0.166697 0.858000 7.534849105e-39 0.000000 0.000000 1.000000
-0.235337 -0.166697 0.858000 7.721757097e-39 0.000000 0.000000 1.000000
-0.233703 -0.166697 0.858000 7.905795229e-39 -0.542564 -0.131717 0.829624
-0.232610 -0.167086 0.860000 7.538818984e-39 0.837038 0.273285 -0.474008
-0.231509 -0.167474 0.862000 7.263674030e-39 -0.495336 -0.507027 0.705383
-0.229867 -0.167474 0.862000 8.366420251e-39 -0.490765 -0.702251 0.515745
-0.229019 -0.168057 0.865000 9.572520642e-39 0.703077 0.496914 -0.508683
-0.227897 -0.168446 0.867000 9.120201116e-39 0.798976 0.498299 -0.336654
-0.226768 -0.168834 0.869000 8.648109269e-39 0.683684 0.636512 -0.356971
-0.226149 -0.169611 0.873000 1.038042806e-38 -0.074553 -0.559311 0.825599
-0.224486 -0.169611 0.873000 1.224119548e-38 0.000000 -0.000000 1.000000
-0.222823 -0.169611 0.873000 1.401012740e-38 0.000000 0.000000 1.000000
-0.221160 -0.169611 0.873000 1.585224073e-38 -0.509178 -0.243601 0.825467
-0.220000 -0.170000 0.875000 1.558249778e-38 -0.528642 -0.127803 0.839168
-0.218333 -0.170000 0.875000 1.529837050e-38 0.526410 0.320047 -0.787694
-0.217905 -0.170971 0.880000 1.216770017e-38 -0.770023 -0.163314 0.616761
-0.217211 -0.171749 0.884000 9.123453530e-39 0.719568 -0.482428 -0.499485
-0.216259 -0.172331 0.887000 7.552881014e-39 0.833809 -0.445697 -0.325756
-0.214570 -0.172331 0.887000 6.083466832e-39 0.903945 -0.400932 -0.148783
-0.215040 -0.174080 0.896000 6.540805809e-39 0.000000 -0.000000 1.000000
-0.213333 -0.174080 0.896000 7.092187328e-39 0.000000 -0.000000 1.000000
-0.211627 -0.174080 0.896000 7.369497288e-39 0.000000 -0.000000 1.000000
-0.209920 -0.174080 0.896000 7.736481941e-39 1.000000 0.000000 0.000000
-0.283390 -0.166410 0.865000 1.152410201e-38 0.000000 0.000000 1.000000
-0.281743 -0.166410 0.865000 1.161450117e-38 1.000000 0.000000 0.000000
-0.280095 -0.166410 0.865000 1.179817216e-38 0.000000 0.000000 1.000000
-0.278448 -0.166410 0.865000 1.189001046e-38 0.000000 0.000000 1.000000
-0.275840 -0.165832 0.862000 1.189037340e-38 0.644806 -0.191215 0.740042
-0.273562 -0.165448 0.860000 1.198256763e-38 0.565676 -0.496112 0.658699
-0.271924 -0.165448 0.860000 1.198256903e-38 0.036297 -0.533510 0.845014
-0.270286 -0.165448 0.860000 1.198328790e-38 0.984953 0.167997 -0.040545
-0.268023 -0.165063 0.858000 1.207512619e-38 0.637810 -0.191677 0.745961
-0.265768 -0.164678 0.856000 1.216803789e-38 0.476777 -0.077026 0.875643
-0.264137 -0.164678 0.856000 1.225987338e-38 0.000000 0.000000 1.000000
-0.262507 -0.164678 0.856000 1.235242915e-38 1.000000 0.000000 0.000000
-0.260876 -0.164678 0.856000 1.253610294e-38 0.000000 0.000000 1.000000
-0.259246 -0.164678 0.856000 1.272049560e-38 -0.173715 0.490108 -0.854177
-0.257013 -0.164293 0.854000 1.290452953e-38 -0.592568 0.592069 -0.546184
-0.254789 -0.163909 0.852000 1.308891939e-38 -0.422793 -0.050658 0.904809
-0.253760 -0.164293 0.854000 1.318111502e-38 -0.295665 -0.512679 0.806066
-0.251543 -0.163909 0.852000 1.327366938e-38 -0.188020 -0.634215 0.749946
-0.250507 -0.164293 0.854000 1.336586641e-38 -0.186835 -0.633894 0.750514
-0.248297 -0.163909 0.852000 1.354989894e-38 -0.188642 -0.633742 0.750190
-0.247253 -0.164293 0.854000 1.354990174e-38 -0.587508 -0.545700 0.597534
-0.245627 -0.164293 0.854000 1.355026328e-38 0.000000 0.000000 1.000000
-0.244000 -0.164293 0.854000 1.391832693e-38 -0.309303 -0.569844 0.761321
-0.242941 -0.164678 0.856000 1.428814501e-38 -0.546809 -0.133336 0.826572
-0.241310 -0.164678 0.856000 1.097019535e-38 -0.526786 -0.257289 0.810123
-0.240240 -0.165063 0.858000 7.634992900e-39 -0.544730 -0.132723 0.828042
-0.238606 -0.165063 0.858000 7.439417877e-39 0.000000 -0.000000 1.000000
-0.236971 -0.165063 0.858000 7.256105617e-39 0.000000 0.000000 1.000000
-0.235337 -0.165063 0.858000 7.349376043e-39 -0.581352 -0.538174 0.610245
-0.234248 -0.165448 0.860000 7.443015010e-39 -0.308292 -0.561155 0.768154
-0.232610 -0.165448 0.860000 8.181296113e-39 0.584538 0.089973 -0.806363
-0.231509 -0.165832 0.862000 9.003510789e-39 -0.721862 -0.023180 0.691648
-0.230667 -0.166410 0.865000 1.020418815e-38 -0.525396 -0.529565 0.665973
-0.229019 -0.166410 0.865000 1.140491176e-38 -0.672248 -0.475307 0.567597
-0.227897 -0.166794 0.867000 1.177337619e-38 0.831005 0.271205 -0.485674
-0.226768 -0.167179 0.869000 1.204998970e-38 0.870727 0.000000 -0.491766
-0.226149 -0.167949 0.873000 1.317213690e-38 1.000000 0.000000 0.000000
-0.224486 -0.167949 0.873000 1.429428270e-38 0.000000 -0.000000 1.000000
-0.222823 -0.167949 0.873000 1.466165691e-38 0.000000 -0.000000 1.000000
-0.221160 -0.167949 0.873000 1.502899609e-38 -0.571433 -0.087115 0.816012
-0.220000 -0.168333 0.875000 1.502325357e-38 -0.570404 -0.086807 0.816764
-0.218333 -0.168333 0.875000 1.492601187e-38 0.000000 0.000000 1.000000
-0.217905 -0.169295 0.880000 1.225953007e-38 0.860369 -0.000000 -0.509672
-0.216720 -0.169680 0.882000 9.489363387e-39 0.859583 0.000704 -0.510996
-0.215528 -0.170065 0.884000 7.922027871e-39 0.857873 -0.326980 -0.396406
-0.215053 -0.171027 0.889000 6.452603880e-39 0.922401 -0.344023 -0.175569
-0.214560 -0.171989 0.894000 6.450754166e-39 -0.377742 0.559439 0.737794
-0.213333 -0.172373 0.896000 6.540812816e-39 -0.237989 0.492884 0.836915
-0.211627 -0.172373 0.896000 7.093277538e-39 1.000000 0.000000 0.000000
-0.209920 -0.172373 0.896000 7.736483342e-39 -0.046698 -0.493325 -0.868590
-0.283390 -0.164762 0.865000 1.143298538e-38 0.000000 0.000000 1.000000
-0.281743 -0.164762 0.865000 1.170669680e-38 0.471595 -0.322763 -0.820623
-0.280743 -0.165143 0.867000 1.179781343e-38 0.684352 -0.047178 -0.727624
-0.278448 -0.164762 0.865000 1.198148723e-38 -0.559423 -0.024767 -0.828512
-0.275840 -0.164190 0.862000 1.198184876e-38 0.659751 0.000000 0.751484
-0.273562 -0.163810 0.860000 1.198256623e-38 -0.563824 -0.025057 -0.825515
-0.271291 -0.163429 0.858000 1.198256763e-38 0.694811 -0.046551 -0.717684
-0.270286 -0.163810 0.860000 1.198328790e-38 0.694811 -0.046551 -0.717684
-0.268023 -0.163429 0.858000 1.207512479e-38 0.637512 -0.192115 0.746104
-0.265768 -0.163048 0.856000 1.216803789e-38 -0.094707 0.587930 -0.803349
-0.264137 -0.163048 0.856000 1.226023352e-38 0.000000 -0.000000 1.000000
-0.262507 -0.163048 0.856000 1.235207182e-38 0.000000 0.000000 1.000000
-0.260876 -0.163048 0.856000 1.253646308e-38 0.000000 0.000000 1.000000
-0.259246 -0.163048 0.856000 1.272049560e-38 0.000000 0.000000 1.000000
-0.257615 -0.163048 0.856000 1.290452813e-38 0.495957 -0.231484 0.836924
-0.254789 -0.162286 0.852000 1.308891799e-38 0.863068 0.259477 -0.433342
-0.253760 -0.162667 0.854000 1.318147375e-38 -0.334224 -0.022659 0.942221
-0.252133 -0.162667 0.854000 1.327367078e-38 0.000000 0.000000 1.000000
-0.250507 -0.162667 0.854000 1.336586782e-38 -0.219945 -0.525755 0.821710
-0.248880 -0.162667 0.854000 1.354989894e-38 0.063198 -0.661114 0.747619
-0.247253 -0.162667 0.854000 1.355026048e-38 -0.472072 -0.678368 0.562996
-0.246202 -0.163048 0.856000 1.364210018e-38 -0.495371 -0.799369 0.340025
-0.244571 -0.163048 0.856000 1.401016523e-38 -0.258148 -0.821104 0.509066
-0.242941 -0.163048 0.856000 1.447074681e-38 -0.072155 -0.568824 0.819288
-0.241310 -0.163048 0.856000 1.106598671e-38 -0.460817 -0.484804 0.743379
-0.240240 -0.163429 0.858000 7.731133185e-39 -0.524864 -0.256781 0.811530
-0.238606 -0.163429 0.858000 7.347212438e-39 0.000000 -0.000000 1.000000
-0.236971 -0.163429 0.858000 6.980970473e-39 -0.543106 -0.132444 0.829153
-0.235886 -0.163810 0.860000 6.982069091e-39 -0.307791 -0.561538 0.768076
-0.234248 -0.163810 0.860000 7.076429727e-39 0.000000 -0.000000 1.000000
-0.232610 -0.163810 0.860000 8.916024923e-39 0.539069 0.329022 -0.775338
-0.232314 -0.164762 0.865000 1.076566603e-38 0.872683 0.357780 -0.332291
-0.230667 -0.164762 0.865000 1.206465429e-38 0.580016 0.089263 -0.809700
-0.229549 -0.165143 0.867000 1.335863852e-38 -0.535906 -0.130412 0.834145
-0.227897 -0.165143 0.867000 1.446895175e-38 0.577739 0.088786 -0.811378
-0.226768 -0.165524 0.869000 1.557673564e-38 0.870727 -0.000000 -0.491766
-0.226149 -0.166286 0.873000 1.595019429e-38 1.000000 0.000000 0.000000
-0.224486 -0.166286 0.873000 1.640435933e-38 0.000000 -0.000000 1.000000
-0.222823 -0.166286 0.873000 1.530054952e-38 0.000000 0.000000 1.000000
-0.221160 -0.166286 0.873000 1.428676894e-38 -0.558871 0.146268 0.816253
-0.220000 -0.166667 0.875000 1.446685120e-38 -0.570422 -0.087150 0.816715
-0.218333 -0.166667 0.875000 1.464907185e-38 0.000000 0.000000 1.000000
-0.217905 -0.167619 0.880000 1.225990001e-38 0.706921 0.181886 -0.683506
-0.216720 -0.168000 0.882000 9.948547875e-39 0.859773 0.000264 -0.510677
-0.215528 -0.168381 0.884000 8.383359147e-39 -0.743470 0.158055 0.649824
-0.214570 -0.168952 0.887000 6.820660527e-39 0.946400 -0.170864 -0.274104
-0.213840 -0.169714 0.891000 6.351379684e-39 -0.719631 0.642983 0.262113
-0.212857 -0.170286 0.894000 5.989438304e-39 -0.358074 0.766673 0.532913
-0.211154 -0.170286 0.894000 6.817053585e-39 -0.139894 0.573362 0.807270
-0.209451 -0.170286 0.894000 7.736842075e-39 -0.139894 0.573362 0.807270
-0.281743 -0.163114 0.865000 1.189108526e-38 0.000000 0.000000 1.000000
-0.280095 -0.163114 0.865000 1.189072513e-38 0.000000 0.000000 1.000000
-0.278448 -0.163114 0.865000 1.198256202e-38 0.000000 0.000000 1.000000
-0.275840 -0.162549 0.862000 1.198256483e-38 0.420333 -0.027975 0.906939
-0.273562 -0.162171 0.860000 1.198292496e-38 0.385606 -0.604579 0.696988
-0.271924 -0.162171 0.860000 1.198292636e-38 0.000000 -0.000000 1.000000
-0.270286 -0.162171 0.860000 1.207512199e-38 0.125411 0.277179 -0.952598
-0.268023 -0.161794 0.858000 1.216696029e-38 0.538311 -0.363146 0.760491
-0.266389 -0.161794 0.858000 1.225987338e-38 0.000000 0.000000 1.000000
-0.264754 -0.161794 0.858000 1.235171168e-38 -0.173317 0.487941 -0.855497
-0.262507 -0.161417 0.856000 1.244390871e-38 -0.184934 -0.631941 0.752629
-0.261486 -0.161794 0.858000 1.253610574e-38 -0.183767 -0.631615 0.753188
-0.259246 -0.161417 0.856000 1.272049560e-38 0.000000 -0.000000 1.000000
-0.257615 -0.161417 0.856000 1.290452813e-38 0.000000 0.000000 1.000000
-0.255387 -0.161040 0.854000 1.299744123e-38 -0.664404 -0.662728 0.345484
-0.254354 -0.161417 0.856000 1.308963826e-38 -0.185353 -0.632023 0.752457
-0.252133 -0.161040 0.854000 1.327367219e-38 -0.187150 -0.631877 0.752135
-0.251093 -0.161417 0.856000 1.336587062e-38 -0.307250 -0.570690 0.761518
-0.249463 -0.161417 0.856000 1.345806485e-38 1.000000 0.000000 0.000000
-0.247832 -0.161417 0.856000 1.355026048e-38 -0.575673 -0.420067 0.701530
-0.246777 -0.161794 0.858000 1.373393707e-38 -0.459857 -0.486058 0.743155
-0.245143 -0.161794 0.858000 1.410164480e-38 0.000000 0.000000 1.000000
-0.243509 -0.161794 0.858000 1.447003635e-38 1.000000 0.000000 0.000000
-0.241874 -0.161794 0.858000 1.226057684e-38 0.000000 0.000000 1.000000
-0.240240 -0.161794 0.858000 1.003132538e-38 0.000000 0.000000 1.000000
-0.238606 -0.161794 0.858000 1.021598569e-38 -0.307945 -0.563371 0.766670
-0.237524 -0.162171 0.860000 1.030930236e-38 -0.580657 -0.537905 0.611142
-0.235886 -0.162171 0.860000 1.059023607e-38 0.000000 -0.000000 1.000000
-0.234248 -0.162171 0.860000 1.077966500e-38 -0.307772 -0.559849 0.769315
-0.233150 -0.162549 0.862000 1.179704972e-38 0.438531 0.599538 -0.669511
-0.232314 -0.163114 0.865000 1.272297310e-38 0.533359 0.326716 -0.780246
-0.230667 -0.163114 0.865000 1.309393744e-38 -0.536688 -0.130853 0.833573
-0.229549 -0.163491 0.867000 1.355672887e-38 -0.515190 -0.250092 0.819776
-0.227897 -0.163491 0.867000 1.419278945e-38 0.531379 0.325298 -0.782188
-0.227811 -0.164623 0.873000 1.493859833e-38 0.000000 0.000000 1.000000
-0.226149 -0.164623 0.873000 1.511940367e-38 0.000000 0.000000 1.000000
-0.224486 -0.164623 0.873000 1.539238642e-38 0.000000 -0.000000 1.000000
-0.222823 -0.164623 0.873000 1.465374518e-38 0.000000 0.000000 1.000000
-0.221160 -0.164623 0.873000 1.400659052e-38 -0.559001 0.146018 0.816209
-0.220000 -0.165000 0.875000 1.446827772e-38 -0.707511 -0.021688 0.706369
-0.219581 -0.165943 0.880000 1.493211312e-38 0.000000 0.000000 1.000000
-0.217905 -0.165943 0.880000 1.263084053e-38 -0.565358 -0.086434 0.820305
-0.216720 -0.166320 0.882000 1.031589687e-38 0.765361 -0.274719 -0.582024
-0.215528 -0.166697 0.884000 8.751780132e-39 0.634912 -0.398976 -0.661593
-0.213844 -0.166697 0.884000 7.280912804e-39 -0.337507 0.603053 0.722784
-0.213360 -0.167640 0.889000 7.088210443e-39 0.525212 -0.779324 -0.341769
-0.211667 -0.167640 0.889000 6.815596234e-39 0.486293 -0.816237 -0.311892
-0.209973 -0.167640 0.889000 7.368784027e-39 -0.401423 0.821038 0.405901
-0.209451 -0.168583 0.894000 7.920873201e-39 -0.139894 0.573362 0.807270
-0.281743 -0.161467 0.865000 1.207475765e-38 -0.229052 0.381386 -0.895589
-0.280095 -0.161467 0.865000 1.198256062e-38 0.000000 0.000000 1.000000
-0.277482 -0.160907 0.862000 1.198256342e-38 0.094238 -0.835073 0.542008
-0.275840 -0.160907 0.862000 1.198256623e-38 0.000000 0.000000 1.000000
-0.274198 -0.160907 0.862000 1.198256623e-38 0.000000 0.000000 1.000000
-0.272556 -0.160907 0.862000 1.207512059e-38 -0.096310 0.583703 -0.806235
-0.270286 -0.160533 0.860000 1.225879298e-38 0.000000 0.000000 1.000000
-0.268648 -0.160533 0.860000 1.225915452e-38 0.491854 -0.229568 0.839868
-0.266389 -0.160160 0.858000 1.235170888e-38 1.000000 0.000000 0.000000
-0.264754 -0.160160 0.858000 1.244354718e-38 0.000000 -0.000000 1.000000
-0.263120 -0.160160 0.858000 1.253574281e-38 0.000000 0.000000 1.000000
-0.261486 -0.160160 0.858000 1.262758111e-38 0.000000 0.000000 1.000000
-0.259851 -0.160160 0.858000 1.281197237e-38 0.494066 -0.231135 0.838138
-0.257615 -0.159787 0.856000 1.290452673e-38 0.000000 0.000000 1.000000
-0.255985 -0.159787 0.856000 1.299708249e-38 0.000000 0.000000 1.000000
-0.254354 -0.159787 0.856000 1.308963826e-38 0.000000 -0.000000 1.000000
-0.252724 -0.159787 0.856000 1.327331205e-38 0.000000 0.000000 1.000000
-0.251093 -0.159787 0.856000 1.336586922e-38 0.000000 -0.000000 1.000000
-0.249463 -0.159787 0.856000 1.345806485e-38 1.000000 0.000000 0.000000
-0.247832 -0.159787 0.856000 1.364209597e-38 -0.459747 -0.486816 0.742727
-0.246777 -0.160160 0.858000 1.382576977e-38 0.576920 -0.152742 -0.802392
-0.245143 -0.160160 0.858000 1.410163779e-38 0.000000 0.000000 1.000000
-0.243509 -0.160160 0.858000 1.446896436e-38 0.000000 0.000000 1.000000
-0.241874 -0.160160 0.858000 1.345553130e-38 0.000000 -0.000000 1.000000
-0.240240 -0.160160 0.858000 1.244314360e-38 0.588161 0.091715 -0.803526
-0.239162 -0.160533 0.860000 1.308379484e-38 -0.542740 -0.132955 0.829310
-0.237524 -0.160533 0.860000 1.373025726e-38 0.585835 0.091208 -0.805282
-0.236434 -0.160907 0.862000 1.410121320e-38 -0.457331 -0.480148 0.748536
-0.234792 -0.160907 0.862000 1.456363188e-38 0.000000 0.000000 1.000000
-0.233150 -0.160907 0.862000 1.465870858e-38 0.792588 0.463715 -0.395945
-0.232314 -0.161467 0.865000 1.474409951e-38 0.684182 0.596709 -0.419325
-0.231200 -0.161840 0.867000 1.419274041e-38 -0.536068 -0.130996 0.833949
-0.229549 -0.161840 0.867000 1.373322241e-38 0.578179 0.089534 -0.810983
-0.228423 -0.162213 0.869000 1.400838838e-38 0.820710 0.251249 -0.513137
-0.227811 -0.162960 0.873000 1.428533401e-38 1.000000 0.000000 0.000000
-0.226149 -0.162960 0.873000 1.437896737e-38 0.000000 0.000000 1.000000
-0.224486 -0.162960 0.873000 1.447222939e-38 0.000000 -0.000000 1.000000
-0.222823 -0.162960 0.873000 1.409913928e-38 0.000000 -0.000000 1.000000
-0.221160 -0.162960 0.873000 1.373180290e-38 -0.659941 -0.320897 0.679340
-0.221257 -0.164267 0.880000 1.446972106e-38 0.000000 0.000000 1.000000
-0.219581 -0.164267 0.880000 1.529694818e-38 0.000000 0.000000 1.000000
-0.217905 -0.164267 0.880000 1.300212717e-38 -0.523790 -0.127426 0.842263
-0.216720 -0.164640 0.882000 1.068323885e-38 -0.500679 -0.240327 0.831603
-0.215040 -0.164640 0.882000 9.212393943e-39 0.000000 0.000000 1.000000
-0.213360 -0.164640 0.882000 7.833729252e-39 0.000000 0.000000 1.000000
-0.211680 -0.164640 0.882000 7.733586858e-39 0.000000 0.000000 1.000000
-0.210000 -0.164640 0.882000 7.735394533e-39 0.000000 0.000000 1.000000
-0.209973 -0.165947 0.889000 7.920514468e-39 -0.401423 0.821038 0.405901
-0.280743 -0.160189 0.867000 1.207439752e-38 0.382775 -0.420829 0.822427
-0.278448 -0.159819 0.865000 1.198256483e-38 0.463236 -0.299107 0.834234
-0.276800 -0.159819 0.865000 1.198256763e-38 -0.184414 0.741764 -0.644808
-0.274198 -0.159265 0.862000 1.198256763e-38 -0.183855 0.742512 -0.644106
-0.272556 -0.159265 0.862000 1.207512059e-38 0.466064 -0.301614 0.831753
-0.270286 -0.158895 0.860000 1.216767635e-38 0.490797 -0.229610 0.840475
-0.268648 -0.158895 0.860000 1.216767916e-38 0.000000 -0.000000 1.000000
-0.266389 -0.158526 0.858000 1.225987479e-38 -0.093802 0.585461 -0.805255
-0.264754 -0.158526 0.858000 1.235171168e-38 1.000000 0.000000 0.000000
-0.263120 -0.158526 0.858000 1.244426604e-38 0.000000 -0.000000 1.000000
-0.261486 -0.158526 0.858000 1.253610434e-38 0.000000 0.000000 1.000000
-0.259851 -0.158526 0.858000 1.272013547e-38 0.000000 0.000000 1.000000
-0.257615 -0.158156 0.856000 1.281233250e-38 -0.091361 0.587629 -0.803956
-0.255985 -0.158156 0.856000 1.299708249e-38 0.000000 0.000000 1.000000
-0.254354 -0.158156 0.856000 1.308927952e-38 0.000000 0.000000 1.000000
-0.252724 -0.158156 0.856000 1.327331205e-38 -0.306596 -0.569784 0.762460
-0.251680 -0.158526 0.858000 1.336550908e-38 -0.305942 -0.568313 0.763819
-0.250046 -0.158526 0.858000 1.355061641e-38 1.000000 0.000000 0.000000
-0.248411 -0.158526 0.858000 1.364209597e-38 1.000000 0.000000 0.000000
-0.246777 -0.158526 0.858000 1.382540823e-38 0.000000 0.000000 1.000000
-0.245143 -0.158526 0.858000 1.391760246e-38 0.000000 0.000000 1.000000
-0.243509 -0.158526 0.858000 1.410091052e-38 0.000000 0.000000 1.000000
-0.241874 -0.158526 0.858000 1.336443008e-38 0.000000 -0.000000 1.000000
-0.240240 -0.158526 0.858000 1.262687485e-38 -0.543539 -0.133407 0.828714
-0.239162 -0.158895 0.860000 1.308676840e-38 0.587087 0.091735 -0.804309
-0.237524 -0.158895 0.860000 1.345985711e-38 -0.541519 -0.132806 0.830133
-0.236434 -0.159265 0.862000 1.382648863e-38 0.584772 0.091229 -0.806051
-0.234792 -0.159265 0.862000 1.419527115e-38 0.000000 0.000000 1.000000
-0.233962 -0.159819 0.865000 1.428639619e-38 0.702553 0.497204 -0.509124
-0.232851 -0.160189 0.867000 1.437786315e-38 -0.536328 -0.131351 0.833726
-0.231200 -0.160189 0.867000 1.410019445e-38 0.000000 0.000000 1.000000
-0.229549 -0.160189 0.867000 1.382218525e-38 -0.534861 -0.130853 0.834746
-0.228423 -0.160558 0.869000 1.409698268e-38 0.820285 0.251619 -0.513635
-0.227811 -0.161297 0.873000 1.428029914e-38 1.000000 0.000000 0.000000
-0.226149 -0.161297 0.873000 1.456298448e-38 0.000000 -0.000000 1.000000
-0.224486 -0.161297 0.873000 1.474629114e-38 -0.529719 -0.129373 0.838249
-0.223333 -0.161667 0.875000 1.474449327e-38 -0.460927 -0.661809 0.591232
-0.221667 -0.161667 0.875000 1.474307095e-38 0.537726 0.761580 -0.361727
-0.221257 -0.162590 0.880000 1.502289624e-38 0.000000 0.000000 1.000000
-0.219581 -0.162590 0.880000 1.539345140e-38 -0.554067 0.143533 0.820005
-0.218400 -0.162960 0.882000 1.309396266e-38 -0.523194 -0.127565 0.842612
-0.216720 -0.162960 0.882000 1.086690984e-38 0.000000 0.000000 1.000000
-0.215040 -0.162960 0.882000 9.580813527e-39 0.000000 0.000000 1.000000
-0.213360 -0.162960 0.882000 8.295067535e-39 0.000000 0.000000 1.000000
-0.211680 -0.162960 0.882000 8.196009746e-39 0.000000 0.000000 1.000000
-0.210000 -0.162960 0.882000 8.104179855e-39 0.000000 0.000000 1.000000
-0.280743 -0.158537 0.867000 1.207439612e-38 -0.622310 0.182705 -0.761150
-0.278448 -0.158171 0.865000 1.198220609e-38 -0.095711 0.579924 -0.809028
-0.276800 -0.158171 0.865000 1.198220890e-38 0.157778 -0.539969 0.826765
-0.275152 -0.158171 0.865000 1.207440312e-38 0.350346 -0.575307 0.739107
-0.273505 -0.158171 0.865000 1.207512059e-38 0.295582 -0.792814 0.532990
-0.270914 -0.157623 0.862000 1.207583946e-38 0.519834 -0.506882 0.687636
-0.268648 -0.157257 0.860000 1.216803649e-38 0.448612 -0.463927 0.763883
-0.267010 -0.157257 0.860000 1.225987338e-38 0.000000 -0.000000 1.000000
-0.265371 -0.157257 0.860000 1.235206901e-38 -0.172338 0.486066 -0.856761
-0.263120 -0.156891 0.858000 1.244426464e-38 -0.172270 0.486653 -0.856441
-0.261486 -0.156891 0.858000 1.253646167e-38 0.000000 0.000000 1.000000
-0.259851 -0.156891 0.858000 1.262829997e-38 0.000000 0.000000 1.000000
-0.258217 -0.156891 0.858000 1.281233250e-38 0.000000 0.000000 1.000000
-0.256583 -0.156891 0.858000 1.299672376e-38 1.000000 0.000000 0.000000
-0.254949 -0.156891 0.858000 1.318075629e-38 0.000000 0.000000 1.000000
-0.253314 -0.156891 0.858000 1.336479022e-38 0.000000 -0.000000 1.000000
-0.251680 -0.156891 0.858000 1.345734598e-38 0.000000 -0.000000 1.000000
-0.250046 -0.156891 0.858000 1.364173724e-38 0.000000 0.000000 1.000000
-0.248411 -0.156891 0.858000 1.373393287e-38 0.000000 0.000000 1.000000
-0.246777 -0.156891 0.858000 1.391760386e-38 1.000000 0.000000 0.000000
-0.245143 -0.156891 0.858000 1.382612570e-38 0.000000 0.000000 1.000000
-0.243509 -0.156891 0.858000 1.373321120e-38 0.000000 0.000000 1.000000
-0.241874 -0.156891 0.858000 1.327367078e-38 -0.306553 -0.563965 0.766791
-0.240800 -0.157257 0.860000 1.290596726e-38 -0.580147 -0.537977 0.611564
-0.239162 -0.157257 0.860000 1.308963545e-38 -0.578947 -0.536461 0.614028
-0.238076 -0.157623 0.862000 1.327367219e-38 -0.578323 -0.535806 0.615187
-0.236434 -0.157623 0.862000 1.354954301e-38 -0.527547 -0.532686 0.661770
-0.235610 -0.158171 0.865000 1.382541384e-38 0.000000 0.000000 1.000000
-0.233962 -0.158171 0.865000 1.391797100e-38 0.580893 0.090770 -0.808903
-0.232851 -0.158537 0.867000 1.410271539e-38 -0.567158 0.148286 0.810150
-0.231200 -0.158537 0.867000 1.400764710e-38 -0.514679 -0.251338 0.819716
-0.230078 -0.158903 0.869000 1.400549891e-38 -0.669613 -0.473346 0.572331
-0.228423 -0.158903 0.869000 1.418953424e-38 0.827595 0.325713 -0.457164
-0.227811 -0.159634 0.873000 1.437644223e-38 0.000000 0.000000 1.000000
-0.226149 -0.159634 0.873000 1.474702261e-38 -0.310471 0.169801 0.935294
-0.225000 -0.160000 0.875000 1.511508346e-38 -0.384452 -0.255370 0.887121
-0.223333 -0.160000 0.875000 1.548529671e-38 -0.443637 -0.316910 0.838304
-0.222427 -0.160549 0.878000 1.585192543e-38 0.919592 0.041580 -0.390669
-0.221257 -0.160914 0.880000 1.566789991e-38 -0.555342 0.143731 0.819107
-0.219581 -0.160914 0.880000 1.548529110e-38 0.565785 0.087484 -0.819899
-0.218400 -0.161280 0.882000 1.327763786e-38 -0.564774 -0.087185 0.820627
-0.216720 -0.161280 0.882000 1.114349393e-38 0.000000 0.000000 1.000000
-0.215040 -0.161280 0.882000 9.946000314e-39 0.000000 0.000000 1.000000
-0.213360 -0.161280 0.882000 8.752455558e-39 0.000000 0.000000 1.000000
-0.211680 -0.161280 0.882000 8.658785762e-39 0.000000 0.000000 1.000000
-0.280743 -0.156886 0.867000 1.207403739e-38 0.420972 -0.346615 0.838237
-0.279091 -0.156886 0.867000 1.189037060e-38 0.254560 -0.704903 0.662051
-0.277440 -0.156886 0.867000 1.198221030e-38 0.000266 -0.840605 0.541648
-0.275789 -0.156886 0.867000 1.207440453e-38 0.350719 -0.744078 0.568634
-0.273505 -0.156524 0.865000 1.207476326e-38 0.445896 -0.461243 0.767093
-0.271857 -0.156524 0.865000 1.207583946e-38 0.439535 -0.418339 0.794859
-0.269272 -0.155981 0.862000 1.216767635e-38 -0.464746 0.778648 -0.421566
-0.267010 -0.155619 0.860000 1.235170748e-38 0.000000 -0.000000 1.000000
-0.265371 -0.155619 0.860000 1.244354578e-38 0.000000 0.000000 1.000000
-0.263733 -0.155619 0.860000 1.253645887e-38 0.000000 0.000000 1.000000
-0.262095 -0.155619 0.860000 1.262829577e-38 -0.092756 0.584722 -0.805914
-0.259851 -0.155257 0.858000 1.272085153e-38 0.000000 0.000000 1.000000
-0.258217 -0.155257 0.858000 1.281269123e-38 0.000000 -0.000000 1.000000
-0.256583 -0.155257 0.858000 1.299636503e-38 0.000000 0.000000 1.000000
-0.254949 -0.155257 0.858000 1.318075769e-38 0.000000 -0.000000 1.000000
-0.253314 -0.155257 0.858000 1.336479162e-38 1.000000 0.000000 0.000000
-0.251680 -0.155257 0.858000 1.345734878e-38 1.000000 0.000000 0.000000
-0.250046 -0.155257 0.858000 1.354954441e-38 0.000000 0.000000 1.000000
-0.248411 -0.155257 0.858000 1.382577117e-38 0.576925 -0.151797 -0.802567
-0.247352 -0.155619 0.860000 1.410127626e-38 -0.494441 -0.511306 0.702919
-0.245714 -0.155619 0.860000 1.382540963e-38 0.693228 -0.171409 0.700038
-0.243509 -0.155257 0.858000 1.364137570e-38 0.691048 -0.042689 -0.721547
-0.242438 -0.155619 0.860000 1.336550768e-38 0.638610 0.216765 -0.738370
-0.240800 -0.155619 0.860000 1.299708530e-38 -0.522000 -0.257570 0.813126
-0.239718 -0.155981 0.862000 1.308927532e-38 0.636248 0.215731 -0.740708
-0.238076 -0.155981 0.862000 1.327366938e-38 1.000000 0.000000 0.000000
-0.237257 -0.156524 0.865000 1.345770471e-38 0.770918 0.204137 -0.603335
-0.235610 -0.156524 0.865000 1.373429020e-38 0.000000 0.000000 1.000000
-0.233962 -0.156524 0.865000 1.391796540e-38 0.580906 0.091121 -0.808854
-0.232851 -0.156886 0.867000 1.410307412e-38 0.579839 0.090794 -0.809656
-0.231200 -0.156886 0.867000 1.410200073e-38 -0.566099 0.147562 0.811023
-0.230078 -0.157248 0.869000 1.418917270e-38 0.719732 0.186499 -0.668732
-0.229474 -0.157971 0.873000 1.437643242e-38 -0.739020 0.182093 0.648607
-0.227811 -0.157971 0.873000 1.456478095e-38 -0.508826 -0.247807 0.824432
-0.226667 -0.158333 0.875000 1.474882609e-38 -0.622446 -0.307763 0.719613
-0.224486 -0.157971 0.873000 1.502469831e-38 0.766619 -0.224868 -0.601440
-0.223333 -0.158333 0.875000 1.520873504e-38 0.652815 -0.041838 -0.756361
-0.222427 -0.158876 0.878000 1.539276056e-38 0.863247 0.000000 -0.504782
-0.221257 -0.159238 0.880000 1.530127960e-38 0.566967 0.087966 -0.819030
-0.219581 -0.159238 0.880000 1.530198305e-38 -0.554314 0.143039 0.819924
-0.218400 -0.159600 0.882000 1.346310812e-38 0.564788 0.087519 -0.820582
-0.216720 -0.159600 0.882000 1.169558451e-38 0.000000 0.000000 1.000000
-0.215040 -0.159600 0.882000 1.013217963e-38 0.000000 0.000000 1.000000
-0.213360 -0.159600 0.882000 8.569148903e-39 0.000000 0.000000 1.000000
-0.211680 -0.159600 0.882000 8.752068799e-39 0.000000 0.000000 1.000000
-0.280379 -0.155950 0.871000 1.189036779e-38 -0.097595 0.636135 -0.765380
-0.278720 -0.155950 0.871000 1.198256763e-38 -0.363061 0.753877 -0.547591
-0.276425 -0.155592 0.869000 1.216623862e-38 0.462111 -0.713043 0.527278
-0.274137 -0.155234 0.867000 1.216659875e-38 0.584646 -0.584463 0.562665
-0.271857 -0.154876 0.865000 1.216731622e-38 0.445786 -0.461308 0.767118
-0.270210 -0.154876 0.865000 1.225951185e-38 0.000000 0.000000 1.000000
-0.268562 -0.154876 0.865000 1.244318424e-38 0.245822 -0.733920 0.633193
-0.265371 -0.153981 0.860000 1.253538127e-38 -0.171622 0.484907 -0.857561
-0.263733 -0.153981 0.860000 1.262757690e-38 1.000000 0.000000 0.000000
-0.262095 -0.153981 0.860000 1.272013127e-38 0.148586 0.553347 -0.819591
-0.259851 -0.153623 0.858000 1.281232830e-38 0.439134 -0.145699 0.886529
-0.258217 -0.153623 0.858000 1.290488266e-38 -0.304544 -0.568837 0.763988
-0.257181 -0.153981 0.860000 1.299672236e-38 -0.306044 0.809456 -0.501117
-0.254949 -0.153623 0.858000 1.318075489e-38 -0.184865 -0.626898 0.756852
-0.253905 -0.153981 0.860000 1.345662431e-38 -0.468385 -0.675113 0.569945
-0.252267 -0.153981 0.860000 1.345734598e-38 0.367989 0.769365 -0.522171
-0.250046 -0.153623 0.858000 1.354990455e-38 0.082543 -0.533746 0.841606
-0.248411 -0.153623 0.858000 1.391761087e-38 -0.456583 -0.485404 0.745597
-0.247352 -0.153981 0.860000 1.428458992e-38 0.755707 0.601444 -0.259175
-0.245143 -0.153623 0.858000 1.391724373e-38 0.439239 0.246657 0.863845
-0.243509 -0.153623 0.858000 1.364137570e-38 0.000000 0.000000 1.000000
-0.241874 -0.153623 0.858000 1.336550628e-38 0.515184 -0.171729 -0.839699
-0.240800 -0.153981 0.860000 1.318075349e-38 0.475222 -0.317504 -0.820583
-0.239162 -0.153981 0.860000 1.318002901e-38 0.635923 0.217475 -0.740477
-0.238076 -0.154339 0.862000 1.327259038e-38 0.473766 -0.315845 -0.822063
-0.236434 -0.154339 0.862000 1.345806485e-38 0.770990 0.204229 -0.603212
-0.235610 -0.154876 0.865000 1.364209737e-38 0.000000 0.000000 1.000000
-0.233962 -0.154876 0.865000 1.391832553e-38 -0.536901 -0.132254 0.833215
-0.232851 -0.155234 0.867000 1.419383342e-38 -0.514799 -0.252959 0.819142
-0.231200 -0.155234 0.867000 1.428854018e-38 -0.534907 -0.131662 0.834589
-0.230078 -0.155592 0.869000 1.438002114e-38 0.796398 0.497467 -0.343915
-0.228949 -0.155950 0.871000 1.456333901e-38 0.794741 0.326340 -0.511750
-0.227811 -0.156309 0.873000 1.483957277e-38 0.885260 0.091425 -0.456023
-0.226667 -0.156667 0.875000 1.484316991e-38 -0.507056 -0.247382 0.825649
-0.225000 -0.156667 0.875000 1.493285861e-38 0.000000 0.000000 1.000000
-0.223333 -0.156667 0.875000 1.493286422e-38 0.783870 0.458126 -0.419128
-0.222427 -0.157204 0.878000 1.493214255e-38 0.708906 0.183303 -0.681067
-0.221257 -0.157562 0.880000 1.502325778e-38 0.566981 0.088303 -0.818985
-0.219581 -0.157562 0.880000 1.511652120e-38 -0.554438 0.142791 0.819884
-0.218400 -0.157920 0.882000 1.374041668e-38 0.564802 0.087854 -0.820537
-0.216720 -0.157920 0.882000 1.234417550e-38 0.000000 0.000000 1.000000
-0.215040 -0.157920 0.882000 1.039907514e-38 1.000000 0.000000 0.000000
-0.213360 -0.157920 0.882000 8.477320413e-39 0.000000 0.000000 1.000000
-0.211680 -0.157920 0.882000 8.844278442e-39 -0.070193 0.577844 -0.813123
-0.285000 -0.155000 0.875000 1.244352756e-38 0.718250 0.150114 0.679399
-0.282686 -0.154646 0.873000 1.216730080e-38 0.525505 -0.449871 0.722123
-0.281023 -0.154646 0.873000 1.189108246e-38 0.155906 -0.534938 0.830383
-0.279360 -0.154646 0.873000 1.198292496e-38 -0.169835 0.477769 -0.861912
-0.277061 -0.154291 0.871000 1.207476186e-38 -0.529377 0.692235 -0.490480
-0.274770 -0.153937 0.869000 1.207476466e-38 0.583762 -0.583944 0.564121
-0.272486 -0.153583 0.867000 1.216731762e-38 0.584645 -0.584461 0.562668
-0.270210 -0.153229 0.865000 1.225951185e-38 -0.170641 0.481789 -0.859512
-0.268562 -0.153229 0.865000 1.244318564e-38 0.401915 -0.471191 0.785139
-0.265989 -0.152697 0.862000 1.244318845e-38 -0.014059 -0.685785 0.727668
-0.264347 -0.152697 0.862000 1.253538408e-38 0.156868 -0.542422 0.825331
-0.262705 -0.152697 0.862000 1.262793844e-38 0.000000 0.000000 1.000000
-0.261063 -0.152697 0.862000 1.281232690e-38 0.000000 0.000000 1.000000
-0.259421 -0.152697 0.862000 1.290452253e-38 0.000000 0.000000 1.000000
-0.257779 -0.152697 0.862000 1.299707829e-38 -0.170695 0.485119 -0.857626
-0.255543 -0.152343 0.860000 1.318075349e-38 0.189001 -0.704129 0.684456
-0.253905 -0.152343 0.860000 1.336478741e-38 0.480719 0.739542 -0.471155
-0.252853 -0.152697 0.862000 1.345734458e-38 0.326587 0.839237 -0.434766
